ply
		format ascii 1.0
		element vertex 50673
		property float x
		property float y
		property float z
		property uchar red
		property uchar green
		property uchar blue
		end_header
134.000000 -181.000000 97.156494 166 165 179
135.000000 -181.000000 96.957001 168 167 181
136.000000 -181.000000 96.757500 174 175 189
137.000000 -181.000000 96.158997 185 189 201
138.000000 -181.000000 95.759995 187 191 204
139.000000 -181.000000 95.759995 185 190 203
140.000000 -181.000000 95.161499 185 191 204
141.000000 -181.000000 92.568001 187 193 205
142.000000 -181.000000 91.969498 190 196 207
143.000000 -181.000000 90.972000 192 199 211
144.000000 -181.000000 91.370995 194 200 213
145.000000 -181.000000 91.370995 194 201 215
146.000000 -181.000000 91.570496 196 202 218
147.000000 -181.000000 91.769997 197 203 219
148.000000 -181.000000 91.769997 198 204 221
149.000000 -181.000000 91.769997 198 205 221
150.000000 -181.000000 91.769997 199 205 221
151.000000 -181.000000 91.171501 200 206 223
152.000000 -181.000000 89.375999 199 206 222
153.000000 -181.000000 88.777496 198 204 220
154.000000 -181.000000 88.577995 196 202 218
155.000000 -181.000000 88.577995 193 200 216
156.000000 -181.000000 88.378494 193 198 214
157.000000 -181.000000 88.378494 189 193 208
158.000000 -181.000000 88.577995 189 192 207
159.000000 -181.000000 88.577995 192 196 211
160.000000 -181.000000 88.976997 198 201 216
161.000000 -181.000000 89.176498 202 205 220
162.000000 -181.000000 89.575500 202 205 220
163.000000 -181.000000 89.774994 197 200 215
164.000000 -181.000000 89.974495 187 190 206
165.000000 -181.000000 90.572998 180 183 199
166.000000 -181.000000 91.570496 179 182 199
167.000000 -181.000000 92.168999 181 184 201
168.000000 -181.000000 92.168999 181 184 199
169.000000 -181.000000 92.568001 185 189 203
170.000000 -181.000000 92.568001 187 191 203
171.000000 -181.000000 92.368500 180 184 195
172.000000 -181.000000 91.969498 172 176 186
173.000000 -181.000000 91.969498 173 176 185
174.000000 -181.000000 91.370995 183 185 196
175.000000 -181.000000 90.772499 191 193 205
176.000000 -181.000000 90.772499 190 192 204
181.000000 -181.000000 87.181496 185 188 206
182.000000 -181.000000 87.380997 191 192 210
183.000000 -181.000000 87.181496 197 197 216
184.000000 -181.000000 87.380997 201 199 216
185.000000 -181.000000 87.380997 188 173 183
186.000000 -181.000000 87.380997 180 143 138
187.000000 -181.000000 86.981995 190 135 114
188.000000 -181.000000 48.877499 194 137 115
189.000000 -181.000000 48.877499 193 140 122
190.000000 -181.000000 50.473499 195 142 124
191.000000 -181.000000 51.670498 195 142 124
192.000000 -181.000000 52.268997 196 143 125
193.000000 -181.000000 52.468498 198 145 127
194.000000 -181.000000 52.667999 200 147 129
195.000000 -181.000000 52.867500 200 148 129
196.000000 -181.000000 52.867500 200 148 127
197.000000 -181.000000 52.867500 192 142 120
198.000000 -181.000000 53.466000 145 97 78
199.000000 -181.000000 53.466000 92 48 29
200.000000 -181.000000 53.665497 79 37 17
201.000000 -181.000000 53.864998 84 42 19
202.000000 -181.000000 53.864998 92 48 21
203.000000 -181.000000 54.064499 94 49 21
204.000000 -181.000000 54.264000 93 49 22
205.000000 -181.000000 54.264000 89 45 18
206.000000 -181.000000 54.264000 85 40 11
207.000000 -181.000000 54.264000 88 43 15
208.000000 -181.000000 54.264000 87 45 20
209.000000 -181.000000 54.264000 76 37 15
210.000000 -181.000000 54.064499 65 31 11
211.000000 -181.000000 54.064499 51 23 5
212.000000 -181.000000 54.064499 45 21 4
213.000000 -181.000000 54.064499 53 28 13
214.000000 -181.000000 54.064499 53 45 28
215.000000 -181.000000 54.064499 67 85 63
216.000000 -181.000000 53.864998 69 89 71
217.000000 -181.000000 53.665497 34 38 30
218.000000 -181.000000 51.670498 13 18 13
219.000000 -181.000000 50.074497 5 18 12
220.000000 -181.000000 49.875000 7 18 14
221.000000 -181.000000 49.875000 7 21 16
222.000000 -181.000000 49.875000 5 23 17
223.000000 -181.000000 50.074497 4 24 17
224.000000 -181.000000 50.273998 5 26 19
225.000000 -181.000000 50.473499 6 26 19
226.000000 -181.000000 50.473499 7 24 18
227.000000 -181.000000 50.473499 4 20 14
228.000000 -181.000000 50.473499 2 18 10
231.000000 -181.000000 0.000000 3 14 9
232.000000 -181.000000 0.000000 0 1 1
233.000000 -181.000000 0.000000 0 0 0
234.000000 -181.000000 0.000000 0 0 0
63.000000 -182.000000 81.994499 200 200 211
64.000000 -182.000000 82.393501 200 200 210
65.000000 -182.000000 82.393501 199 198 207
66.000000 -182.000000 82.194000 197 196 204
67.000000 -182.000000 81.994499 195 194 201
68.000000 -182.000000 81.196495 194 193 199
69.000000 -182.000000 81.196495 189 188 194
70.000000 -182.000000 81.794998 189 188 193
71.000000 -182.000000 81.994499 189 188 194
72.000000 -182.000000 82.194000 189 188 194
73.000000 -182.000000 82.194000 192 191 197
74.000000 -182.000000 82.194000 194 192 197
75.000000 -182.000000 82.194000 193 191 196
76.000000 -182.000000 82.194000 191 188 193
77.000000 -182.000000 82.194000 190 187 192
78.000000 -182.000000 81.994499 190 187 191
79.000000 -182.000000 81.196495 182 177 180
80.000000 -182.000000 80.797501 176 167 167
81.000000 -182.000000 80.797501 172 162 161
82.000000 -182.000000 80.996994 175 165 163
83.000000 -182.000000 81.794998 171 160 158
84.000000 -182.000000 81.794998 163 150 147
85.000000 -182.000000 82.194000 157 144 140
86.000000 -182.000000 82.194000 155 141 137
87.000000 -182.000000 82.194000 155 141 136
88.000000 -182.000000 81.196495 156 142 136
89.000000 -182.000000 80.598000 155 142 135
90.000000 -182.000000 80.398499 155 141 134
91.000000 -182.000000 80.198997 156 143 136
92.000000 -182.000000 79.799995 156 144 136
93.000000 -182.000000 79.600494 149 136 129
94.000000 -182.000000 79.600494 148 136 131
95.000000 -182.000000 79.600494 154 144 141
96.000000 -182.000000 79.799995 160 152 150
97.000000 -182.000000 79.999496 141 135 132
98.000000 -182.000000 80.398499 77 71 67
99.000000 -182.000000 80.797501 26 22 18
100.000000 -182.000000 81.994499 17 15 10
101.000000 -182.000000 82.991997 22 20 15
102.000000 -182.000000 83.390999 87 75 64
103.000000 -182.000000 83.590500 172 144 119
104.000000 -182.000000 83.590500 159 135 103
105.000000 -182.000000 83.790001 142 126 97
106.000000 -182.000000 82.991997 105 93 75
107.000000 -182.000000 82.991997 40 27 19
108.000000 -182.000000 83.590500 49 33 27
109.000000 -182.000000 85.385994 126 103 92
110.000000 -182.000000 86.782501 212 173 152
111.000000 -182.000000 87.979500 247 196 171
112.000000 -182.000000 89.575500 247 202 182
113.000000 -182.000000 91.370995 236 203 190
114.000000 -182.000000 93.166496 219 198 190
115.000000 -182.000000 95.161499 188 176 172
116.000000 -182.000000 97.156494 139 133 130
117.000000 -182.000000 99.350998 89 86 82
118.000000 -182.000000 101.346001 58 51 44
119.000000 -182.000000 102.941994 53 43 35
120.000000 -182.000000 104.537994 59 50 43
121.000000 -182.000000 105.335999 62 54 49
122.000000 -182.000000 105.934494 69 62 60
123.000000 -182.000000 106.133995 77 71 72
124.000000 -182.000000 105.934494 97 92 95
125.000000 -182.000000 104.338493 125 122 126
126.000000 -182.000000 102.941994 150 149 154
127.000000 -182.000000 102.742500 161 160 166
128.000000 -182.000000 102.542999 163 162 169
129.000000 -182.000000 102.542999 166 165 173
130.000000 -182.000000 101.744995 164 162 172
131.000000 -182.000000 98.353500 163 161 173
132.000000 -182.000000 96.557999 168 166 178
133.000000 -182.000000 96.557999 172 170 183
134.000000 -182.000000 96.557999 171 170 184
135.000000 -182.000000 96.757500 172 171 185
136.000000 -182.000000 96.557999 178 178 191
137.000000 -182.000000 95.959496 187 189 202
138.000000 -182.000000 95.759995 187 191 203
139.000000 -182.000000 95.759995 185 190 202
140.000000 -182.000000 95.560501 185 191 203
141.000000 -182.000000 92.368500 190 196 207
142.000000 -182.000000 90.972000 193 199 211
143.000000 -182.000000 90.972000 195 201 213
144.000000 -182.000000 90.972000 196 202 215
145.000000 -182.000000 91.570496 194 200 214
146.000000 -182.000000 91.769997 194 200 215
147.000000 -182.000000 91.969498 197 203 219
148.000000 -182.000000 91.969498 198 204 220
149.000000 -182.000000 91.969498 199 205 221
150.000000 -182.000000 91.769997 198 204 220
151.000000 -182.000000 91.370995 197 203 219
152.000000 -182.000000 89.575500 198 204 220
153.000000 -182.000000 89.176498 198 204 220
154.000000 -182.000000 88.777496 197 203 219
155.000000 -182.000000 88.577995 195 201 217
156.000000 -182.000000 88.378494 192 198 214
157.000000 -182.000000 88.378494 189 193 208
158.000000 -182.000000 88.378494 190 193 208
159.000000 -182.000000 88.577995 191 194 209
160.000000 -182.000000 88.976997 192 195 210
161.000000 -182.000000 89.176498 197 200 215
162.000000 -182.000000 89.575500 201 204 219
163.000000 -182.000000 89.974495 199 202 217
164.000000 -182.000000 90.173996 191 194 209
165.000000 -182.000000 90.572998 185 188 205
166.000000 -182.000000 91.570496 183 186 203
167.000000 -182.000000 92.168999 180 183 200
168.000000 -182.000000 92.368500 181 184 199
169.000000 -182.000000 92.568001 185 188 202
170.000000 -182.000000 92.568001 186 190 202
171.000000 -182.000000 92.568001 178 182 194
172.000000 -182.000000 92.368500 171 174 185
173.000000 -182.000000 91.969498 170 173 182
174.000000 -182.000000 91.969498 178 181 191
175.000000 -182.000000 91.570496 189 192 203
176.000000 -182.000000 91.370995 190 192 204
177.000000 -182.000000 91.171501 183 185 199
180.000000 -182.000000 91.370995 179 182 199
181.000000 -182.000000 87.779999 181 183 201
182.000000 -182.000000 87.580498 189 190 206
183.000000 -182.000000 87.380997 195 195 212
184.000000 -182.000000 87.580498 202 200 218
185.000000 -182.000000 87.580498 197 186 197
186.000000 -182.000000 87.580498 183 152 149
187.000000 -182.000000 87.580498 187 137 119
188.000000 -182.000000 49.276497 192 137 116
189.000000 -182.000000 49.276497 193 140 122
190.000000 -182.000000 50.673000 195 142 124
191.000000 -182.000000 51.869999 195 142 124
192.000000 -182.000000 52.268997 196 143 125
193.000000 -182.000000 52.468498 198 145 127
194.000000 -182.000000 52.667999 200 147 129
195.000000 -182.000000 52.867500 200 148 129
196.000000 -182.000000 52.867500 200 148 127
197.000000 -182.000000 52.867500 191 141 119
198.000000 -182.000000 53.466000 144 97 78
199.000000 -182.000000 53.466000 93 49 30
200.000000 -182.000000 53.665497 79 38 17
201.000000 -182.000000 53.864998 84 42 19
202.000000 -182.000000 54.064499 92 48 21
203.000000 -182.000000 54.064499 94 49 21
204.000000 -182.000000 54.264000 93 49 22
205.000000 -182.000000 54.264000 89 45 18
206.000000 -182.000000 54.264000 85 40 11
207.000000 -182.000000 54.264000 88 43 15
208.000000 -182.000000 54.264000 87 45 20
209.000000 -182.000000 54.264000 76 37 14
210.000000 -182.000000 54.064499 65 31 11
211.000000 -182.000000 54.064499 51 23 5
212.000000 -182.000000 54.064499 45 21 4
213.000000 -182.000000 54.064499 53 28 13
214.000000 -182.000000 54.064499 53 45 28
215.000000 -182.000000 54.064499 67 85 64
216.000000 -182.000000 53.864998 69 89 72
217.000000 -182.000000 53.665497 34 37 30
218.000000 -182.000000 51.670498 13 18 13
219.000000 -182.000000 50.074497 5 18 12
220.000000 -182.000000 49.875000 7 18 14
221.000000 -182.000000 49.875000 7 21 16
222.000000 -182.000000 49.875000 5 23 17
223.000000 -182.000000 50.074497 4 24 17
224.000000 -182.000000 50.473499 5 26 19
225.000000 -182.000000 50.473499 6 26 19
226.000000 -182.000000 50.473499 7 24 18
227.000000 -182.000000 50.473499 4 20 14
228.000000 -182.000000 50.473499 2 18 10
232.000000 -182.000000 0.000000 0 1 1
233.000000 -182.000000 0.000000 0 0 0
234.000000 -182.000000 0.000000 0 0 0
63.000000 -183.000000 82.194000 200 200 210
64.000000 -183.000000 82.393501 200 200 208
65.000000 -183.000000 82.393501 197 196 203
66.000000 -183.000000 82.194000 196 195 201
67.000000 -183.000000 80.996994 200 199 205
68.000000 -183.000000 80.198997 198 197 203
69.000000 -183.000000 80.198997 190 189 195
70.000000 -183.000000 80.398499 187 186 192
71.000000 -183.000000 80.996994 187 186 192
72.000000 -183.000000 81.994499 189 188 193
73.000000 -183.000000 82.194000 192 190 196
74.000000 -183.000000 82.194000 194 193 198
75.000000 -183.000000 82.393501 194 193 198
76.000000 -183.000000 82.393501 193 192 197
77.000000 -183.000000 82.393501 195 194 199
78.000000 -183.000000 82.194000 193 192 196
79.000000 -183.000000 81.994499 187 184 187
80.000000 -183.000000 81.196495 183 176 177
81.000000 -183.000000 80.797501 179 170 170
82.000000 -183.000000 80.996994 178 169 168
83.000000 -183.000000 81.794998 172 162 161
84.000000 -183.000000 82.393501 167 156 154
85.000000 -183.000000 82.393501 167 156 152
86.000000 -183.000000 82.792496 168 157 153
87.000000 -183.000000 82.792496 169 158 153
88.000000 -183.000000 82.393501 169 158 152
89.000000 -183.000000 81.196495 166 155 149
90.000000 -183.000000 80.797501 159 148 143
91.000000 -183.000000 80.398499 157 146 140
92.000000 -183.000000 79.999496 160 149 144
93.000000 -183.000000 79.799995 162 151 145
94.000000 -183.000000 79.799995 160 150 145
95.000000 -183.000000 79.799995 159 151 148
96.000000 -183.000000 79.799995 167 160 158
97.000000 -183.000000 80.198997 170 164 161
98.000000 -183.000000 80.398499 132 127 124
99.000000 -183.000000 80.598000 57 54 50
100.000000 -183.000000 81.196495 20 18 14
101.000000 -183.000000 81.994499 22 21 16
102.000000 -183.000000 82.991997 84 73 64
103.000000 -183.000000 83.590500 166 142 120
104.000000 -183.000000 84.188995 172 152 124
105.000000 -183.000000 86.183998 169 156 130
106.000000 -183.000000 86.383499 109 101 86
107.000000 -183.000000 86.583000 34 25 20
108.000000 -183.000000 86.782501 26 14 12
109.000000 -183.000000 86.782501 61 44 36
110.000000 -183.000000 87.979500 151 120 106
111.000000 -183.000000 89.575500 222 182 165
112.000000 -183.000000 91.370995 232 198 184
113.000000 -183.000000 92.368500 214 190 181
114.000000 -183.000000 93.764999 173 157 153
115.000000 -183.000000 95.759995 113 105 102
116.000000 -183.000000 97.156494 64 60 58
117.000000 -183.000000 99.350998 52 49 46
118.000000 -183.000000 101.346001 56 50 46
119.000000 -183.000000 102.941994 67 59 56
120.000000 -183.000000 104.737495 80 72 70
121.000000 -183.000000 105.535500 83 76 77
122.000000 -183.000000 106.532997 91 84 87
123.000000 -183.000000 106.732498 108 103 107
124.000000 -183.000000 106.133995 135 130 137
125.000000 -183.000000 103.340996 156 153 160
126.000000 -183.000000 102.542999 169 168 174
127.000000 -183.000000 102.542999 175 174 180
128.000000 -183.000000 102.542999 171 170 178
129.000000 -183.000000 101.744995 171 170 179
130.000000 -183.000000 96.957001 171 170 181
131.000000 -183.000000 95.959496 170 169 181
132.000000 -183.000000 95.959496 173 171 184
133.000000 -183.000000 95.959496 176 174 188
134.000000 -183.000000 96.158997 177 176 190
135.000000 -183.000000 96.557999 178 177 191
136.000000 -183.000000 95.959496 182 182 196
137.000000 -183.000000 95.759995 188 191 204
138.000000 -183.000000 95.759995 191 195 207
139.000000 -183.000000 95.560501 191 196 208
140.000000 -183.000000 93.764999 188 194 206
141.000000 -183.000000 90.572998 187 193 204
142.000000 -183.000000 90.572998 190 196 207
143.000000 -183.000000 90.572998 194 200 212
144.000000 -183.000000 90.772499 195 201 214
145.000000 -183.000000 91.769997 192 198 212
146.000000 -183.000000 91.769997 191 197 212
147.000000 -183.000000 91.969498 194 200 216
148.000000 -183.000000 91.969498 198 204 220
149.000000 -183.000000 91.969498 198 204 220
150.000000 -183.000000 91.769997 196 202 218
151.000000 -183.000000 91.370995 195 201 217
152.000000 -183.000000 90.373497 196 202 218
153.000000 -183.000000 89.575500 197 203 219
154.000000 -183.000000 89.176498 199 205 221
155.000000 -183.000000 88.976997 197 203 219
156.000000 -183.000000 88.777496 193 199 215
157.000000 -183.000000 88.378494 190 194 209
158.000000 -183.000000 88.577995 189 192 207
159.000000 -183.000000 88.577995 188 191 206
160.000000 -183.000000 88.976997 189 192 207
161.000000 -183.000000 89.176498 194 197 212
162.000000 -183.000000 89.575500 203 206 221
163.000000 -183.000000 89.974495 201 204 219
164.000000 -183.000000 90.373497 194 197 212
165.000000 -183.000000 90.572998 188 191 207
166.000000 -183.000000 91.570496 183 186 203
167.000000 -183.000000 92.168999 180 183 199
168.000000 -183.000000 92.568001 182 185 200
169.000000 -183.000000 92.568001 187 190 205
170.000000 -183.000000 92.568001 185 189 202
171.000000 -183.000000 92.568001 174 178 190
172.000000 -183.000000 92.368500 166 169 180
173.000000 -183.000000 91.969498 165 168 177
174.000000 -183.000000 91.969498 175 177 187
175.000000 -183.000000 91.570496 187 189 201
176.000000 -183.000000 91.570496 189 191 204
177.000000 -183.000000 91.969498 185 187 201
178.000000 -183.000000 92.368500 183 185 200
179.000000 -183.000000 92.568001 179 182 197
180.000000 -183.000000 92.168999 173 176 192
181.000000 -183.000000 91.370995 177 179 195
182.000000 -183.000000 88.179001 185 185 200
183.000000 -183.000000 87.779999 190 190 207
184.000000 -183.000000 87.779999 199 198 216
185.000000 -183.000000 87.779999 202 194 207
186.000000 -183.000000 87.979500 191 166 166
187.000000 -183.000000 87.580498 184 142 128
188.000000 -183.000000 87.580498 190 138 120
189.000000 -183.000000 50.273998 193 140 122
190.000000 -183.000000 50.673000 195 142 124
191.000000 -183.000000 51.869999 195 142 124
192.000000 -183.000000 52.268997 196 143 125
193.000000 -183.000000 52.268997 198 145 127
194.000000 -183.000000 52.468498 200 147 129
195.000000 -183.000000 52.667999 200 148 129
196.000000 -183.000000 52.667999 200 148 126
197.000000 -183.000000 52.867500 190 139 118
198.000000 -183.000000 53.466000 144 96 77
199.000000 -183.000000 53.665497 94 50 31
200.000000 -183.000000 53.665497 79 38 17
201.000000 -183.000000 53.864998 84 42 19
202.000000 -183.000000 54.064499 92 48 22
203.000000 -183.000000 54.064499 94 49 21
204.000000 -183.000000 54.264000 93 49 22
205.000000 -183.000000 54.264000 89 45 18
206.000000 -183.000000 54.264000 85 40 11
207.000000 -183.000000 54.264000 87 43 15
208.000000 -183.000000 54.264000 87 45 20
209.000000 -183.000000 54.264000 76 37 15
210.000000 -183.000000 54.064499 65 31 11
211.000000 -183.000000 54.064499 51 23 5
212.000000 -183.000000 54.064499 46 22 4
213.000000 -183.000000 54.064499 53 28 13
214.000000 -183.000000 54.064499 53 45 28
215.000000 -183.000000 54.064499 67 85 64
216.000000 -183.000000 53.864998 69 89 72
217.000000 -183.000000 53.665497 33 37 30
218.000000 -183.000000 51.670498 13 17 13
219.000000 -183.000000 50.273998 5 18 12
220.000000 -183.000000 50.074497 7 18 14
221.000000 -183.000000 50.074497 7 21 16
222.000000 -183.000000 50.074497 5 23 17
223.000000 -183.000000 50.074497 4 24 17
224.000000 -183.000000 50.473499 5 26 19
225.000000 -183.000000 50.473499 6 26 19
226.000000 -183.000000 50.473499 7 23 18
227.000000 -183.000000 50.473499 4 20 13
228.000000 -183.000000 50.473499 2 18 10
232.000000 -183.000000 0.000000 0 1 1
233.000000 -183.000000 0.199500 0 0 0
234.000000 -183.000000 0.199500 0 0 0
63.000000 -184.000000 80.996994 200 200 210
64.000000 -184.000000 82.194000 200 200 208
65.000000 -184.000000 82.194000 197 196 202
66.000000 -184.000000 80.996994 197 196 202
67.000000 -184.000000 79.600494 202 201 207
68.000000 -184.000000 79.600494 200 199 205
69.000000 -184.000000 79.600494 194 193 199
70.000000 -184.000000 79.999496 188 187 193
71.000000 -184.000000 80.398499 188 187 193
72.000000 -184.000000 80.996994 191 190 196
73.000000 -184.000000 81.994499 193 192 197
74.000000 -184.000000 82.194000 196 195 200
75.000000 -184.000000 82.393501 195 194 199
76.000000 -184.000000 82.792496 196 195 200
77.000000 -184.000000 82.792496 198 197 202
78.000000 -184.000000 82.592995 192 191 195
79.000000 -184.000000 82.194000 184 182 185
80.000000 -184.000000 81.196495 182 178 179
81.000000 -184.000000 80.797501 181 174 175
82.000000 -184.000000 80.797501 180 173 173
83.000000 -184.000000 81.395996 176 167 166
84.000000 -184.000000 82.393501 172 163 161
85.000000 -184.000000 82.792496 171 161 159
86.000000 -184.000000 82.991997 171 161 159
87.000000 -184.000000 83.191498 172 162 158
88.000000 -184.000000 83.390999 175 165 161
89.000000 -184.000000 82.991997 175 166 161
90.000000 -184.000000 82.792496 169 160 155
91.000000 -184.000000 82.194000 166 157 152
92.000000 -184.000000 80.598000 170 161 156
93.000000 -184.000000 79.999496 175 166 161
94.000000 -184.000000 79.799995 175 166 162
95.000000 -184.000000 79.799995 172 163 161
96.000000 -184.000000 79.999496 171 164 162
97.000000 -184.000000 80.398499 177 171 169
98.000000 -184.000000 80.598000 169 164 162
99.000000 -184.000000 80.797501 108 105 102
100.000000 -184.000000 81.196495 39 38 34
101.000000 -184.000000 81.994499 22 21 17
102.000000 -184.000000 82.792496 53 45 38
103.000000 -184.000000 83.590500 126 109 94
104.000000 -184.000000 86.183998 158 145 124
105.000000 -184.000000 87.181496 133 126 107
106.000000 -184.000000 89.176498 60 55 46
107.000000 -184.000000 89.974495 20 15 15
108.000000 -184.000000 90.173996 19 12 13
109.000000 -184.000000 90.373497 27 17 12
110.000000 -184.000000 90.572998 78 58 50
111.000000 -184.000000 91.769997 166 141 132
112.000000 -184.000000 92.368500 200 178 172
113.000000 -184.000000 93.764999 163 147 143
114.000000 -184.000000 94.762497 105 94 92
115.000000 -184.000000 96.757500 56 50 48
116.000000 -184.000000 97.954498 42 39 38
117.000000 -184.000000 99.350998 59 57 56
118.000000 -184.000000 101.146500 76 72 73
119.000000 -184.000000 102.542999 94 88 91
120.000000 -184.000000 104.737495 107 102 106
121.000000 -184.000000 105.535500 114 109 115
122.000000 -184.000000 107.530495 123 118 125
123.000000 -184.000000 108.528000 144 139 148
124.000000 -184.000000 107.530495 167 164 173
125.000000 -184.000000 102.343498 177 175 184
126.000000 -184.000000 101.944496 181 180 188
127.000000 -184.000000 101.744995 182 182 190
128.000000 -184.000000 101.744995 176 176 185
129.000000 -184.000000 93.764999 176 176 186
130.000000 -184.000000 93.764999 178 177 189
131.000000 -184.000000 93.964500 179 179 191
132.000000 -184.000000 94.961998 182 181 195
133.000000 -184.000000 95.161499 181 180 194
134.000000 -184.000000 95.560501 183 182 196
135.000000 -184.000000 95.560501 189 188 202
136.000000 -184.000000 95.361000 192 193 206
137.000000 -184.000000 94.762497 193 196 209
138.000000 -184.000000 94.163994 192 196 208
139.000000 -184.000000 93.764999 193 198 210
140.000000 -184.000000 90.572998 192 198 210
141.000000 -184.000000 90.373497 190 197 208
142.000000 -184.000000 90.373497 192 198 209
143.000000 -184.000000 90.373497 193 199 211
144.000000 -184.000000 90.572998 195 201 214
145.000000 -184.000000 91.769997 197 203 217
146.000000 -184.000000 91.969498 194 200 215
147.000000 -184.000000 92.168999 195 201 217
148.000000 -184.000000 91.969498 198 204 220
149.000000 -184.000000 91.769997 198 204 220
150.000000 -184.000000 91.769997 199 205 221
151.000000 -184.000000 91.370995 198 204 220
152.000000 -184.000000 90.572998 198 204 220
153.000000 -184.000000 89.774994 202 208 224
154.000000 -184.000000 89.575500 202 208 224
155.000000 -184.000000 89.375999 200 206 222
156.000000 -184.000000 89.176498 195 201 217
157.000000 -184.000000 88.777496 191 194 210
158.000000 -184.000000 88.777496 187 190 205
159.000000 -184.000000 88.976997 187 190 205
160.000000 -184.000000 89.176498 188 191 206
161.000000 -184.000000 89.375999 195 198 213
162.000000 -184.000000 89.575500 205 208 223
163.000000 -184.000000 89.974495 205 208 223
164.000000 -184.000000 90.373497 197 200 216
165.000000 -184.000000 90.572998 187 190 207
166.000000 -184.000000 91.570496 184 187 204
167.000000 -184.000000 92.168999 183 186 202
168.000000 -184.000000 92.568001 183 186 201
169.000000 -184.000000 92.568001 184 188 202
170.000000 -184.000000 92.568001 183 187 199
171.000000 -184.000000 92.568001 177 181 193
172.000000 -184.000000 92.168999 171 175 185
173.000000 -184.000000 91.969498 165 168 177
174.000000 -184.000000 91.769997 172 175 185
175.000000 -184.000000 91.769997 186 188 199
176.000000 -184.000000 91.969498 189 191 204
177.000000 -184.000000 92.368500 186 188 202
178.000000 -184.000000 92.568001 184 186 201
179.000000 -184.000000 92.568001 178 180 195
180.000000 -184.000000 92.568001 172 174 189
181.000000 -184.000000 92.168999 175 177 191
182.000000 -184.000000 89.375999 183 183 196
183.000000 -184.000000 88.179001 189 188 204
184.000000 -184.000000 88.179001 194 195 213
185.000000 -184.000000 88.179001 200 196 211
186.000000 -184.000000 88.179001 197 180 184
187.000000 -184.000000 87.779999 184 150 142
188.000000 -184.000000 87.580498 188 141 125
189.000000 -184.000000 50.872498 194 141 123
190.000000 -184.000000 50.872498 195 142 124
191.000000 -184.000000 51.869999 196 143 125
192.000000 -184.000000 52.268997 196 143 125
193.000000 -184.000000 52.268997 198 145 127
194.000000 -184.000000 52.468498 199 146 128
195.000000 -184.000000 52.667999 199 147 128
196.000000 -184.000000 52.667999 199 147 126
197.000000 -184.000000 52.867500 189 139 118
198.000000 -184.000000 53.466000 143 96 77
199.000000 -184.000000 53.665497 94 50 31
200.000000 -184.000000 53.864998 79 37 17
201.000000 -184.000000 53.864998 85 43 20
202.000000 -184.000000 54.064499 93 50 23
203.000000 -184.000000 54.064499 95 51 22
204.000000 -184.000000 54.264000 94 50 23
205.000000 -184.000000 54.264000 88 44 17
206.000000 -184.000000 54.264000 83 39 10
207.000000 -184.000000 54.264000 86 41 13
208.000000 -184.000000 54.264000 87 44 19
209.000000 -184.000000 54.264000 79 39 17
210.000000 -184.000000 54.264000 67 32 13
211.000000 -184.000000 54.064499 52 24 6
212.000000 -184.000000 54.264000 46 23 5
213.000000 -184.000000 54.064499 54 29 14
214.000000 -184.000000 54.064499 54 47 30
215.000000 -184.000000 54.064499 69 87 66
216.000000 -184.000000 53.864998 69 89 72
217.000000 -184.000000 53.665497 33 36 29
218.000000 -184.000000 51.670498 13 17 13
219.000000 -184.000000 50.473499 5 18 12
220.000000 -184.000000 50.273998 6 18 14
221.000000 -184.000000 50.273998 7 21 16
222.000000 -184.000000 50.273998 5 23 18
223.000000 -184.000000 50.273998 4 24 18
224.000000 -184.000000 50.473499 4 25 18
225.000000 -184.000000 50.473499 6 25 18
226.000000 -184.000000 50.473499 6 23 17
227.000000 -184.000000 50.473499 4 19 13
228.000000 -184.000000 50.273998 2 18 11
232.000000 -184.000000 0.000000 0 1 1
233.000000 -184.000000 0.199500 0 0 0
234.000000 -184.000000 0.199500 0 0 0
63.000000 -185.000000 79.001999 198 198 208
64.000000 -185.000000 80.797501 200 199 207
65.000000 -185.000000 80.797501 202 201 207
66.000000 -185.000000 79.201500 203 202 208
67.000000 -185.000000 79.201500 202 201 207
68.000000 -185.000000 79.201500 199 198 204
69.000000 -185.000000 79.201500 197 196 202
70.000000 -185.000000 79.600494 190 189 195
71.000000 -185.000000 79.999496 187 186 192
72.000000 -185.000000 80.598000 191 190 196
73.000000 -185.000000 81.595497 195 194 199
74.000000 -185.000000 82.194000 197 196 201
75.000000 -185.000000 82.792496 197 196 201
76.000000 -185.000000 82.991997 196 195 200
77.000000 -185.000000 82.991997 193 192 197
78.000000 -185.000000 82.991997 188 187 192
79.000000 -185.000000 82.592995 181 179 184
80.000000 -185.000000 81.395996 183 180 183
81.000000 -185.000000 80.996994 183 179 181
82.000000 -185.000000 80.996994 181 176 177
83.000000 -185.000000 81.395996 179 172 173
84.000000 -185.000000 82.393501 177 170 169
85.000000 -185.000000 82.991997 173 165 163
86.000000 -185.000000 83.191498 171 163 161
87.000000 -185.000000 83.390999 175 167 165
88.000000 -185.000000 83.590500 182 175 171
89.000000 -185.000000 83.590500 184 177 174
90.000000 -185.000000 83.390999 179 171 168
91.000000 -185.000000 82.991997 176 169 165
92.000000 -185.000000 82.194000 177 170 167
93.000000 -185.000000 80.598000 178 170 167
94.000000 -185.000000 80.398499 177 169 167
95.000000 -185.000000 80.398499 174 166 166
96.000000 -185.000000 80.398499 170 162 162
97.000000 -185.000000 80.797501 172 165 165
98.000000 -185.000000 80.797501 180 174 174
99.000000 -185.000000 81.196495 160 156 155
100.000000 -185.000000 81.196495 87 86 84
101.000000 -185.000000 81.994499 36 35 33
102.000000 -185.000000 82.991997 33 28 24
103.000000 -185.000000 84.787498 56 47 39
104.000000 -185.000000 87.181496 67 60 48
105.000000 -185.000000 89.176498 50 47 36
106.000000 -185.000000 90.572998 21 19 17
107.000000 -185.000000 91.769997 14 11 17
108.000000 -185.000000 92.568001 13 10 14
109.000000 -185.000000 92.767494 17 12 10
110.000000 -185.000000 93.365997 48 39 35
111.000000 -185.000000 93.365997 127 115 112
112.000000 -185.000000 94.363495 150 140 138
113.000000 -185.000000 94.762497 112 103 102
114.000000 -185.000000 96.358498 77 70 69
115.000000 -185.000000 97.754997 52 48 48
116.000000 -185.000000 98.552994 63 62 63
117.000000 -185.000000 99.550499 97 97 99
118.000000 -185.000000 101.146500 121 120 124
119.000000 -185.000000 102.143997 135 133 141
120.000000 -185.000000 104.737495 142 140 148
121.000000 -185.000000 105.535500 147 144 154
122.000000 -185.000000 108.528000 156 152 163
123.000000 -185.000000 109.126495 170 166 178
124.000000 -185.000000 109.126495 182 178 191
125.000000 -185.000000 97.355995 186 183 195
126.000000 -185.000000 93.964500 188 187 196
127.000000 -185.000000 93.764999 186 187 196
128.000000 -185.000000 93.365997 181 181 192
129.000000 -185.000000 93.166496 180 181 192
130.000000 -185.000000 93.166496 182 182 195
131.000000 -185.000000 93.565498 184 183 197
132.000000 -185.000000 93.964500 184 184 198
133.000000 -185.000000 93.964500 186 186 200
134.000000 -185.000000 93.964500 191 190 204
135.000000 -185.000000 93.964500 196 195 209
136.000000 -185.000000 93.565498 197 197 211
137.000000 -185.000000 92.966995 195 197 210
138.000000 -185.000000 92.568001 192 196 208
139.000000 -185.000000 91.769997 194 199 211
140.000000 -185.000000 90.373497 194 199 211
141.000000 -185.000000 90.373497 191 198 209
142.000000 -185.000000 90.373497 190 197 208
143.000000 -185.000000 90.373497 192 198 210
144.000000 -185.000000 90.972000 192 198 212
145.000000 -185.000000 91.969498 191 197 211
146.000000 -185.000000 91.969498 189 195 211
147.000000 -185.000000 91.969498 191 197 213
148.000000 -185.000000 91.969498 194 200 216
149.000000 -185.000000 91.969498 193 199 215
150.000000 -185.000000 91.769997 195 201 217
151.000000 -185.000000 91.370995 197 203 219
152.000000 -185.000000 90.572998 198 204 220
153.000000 -185.000000 90.373497 200 206 222
154.000000 -185.000000 89.774994 200 206 222
155.000000 -185.000000 89.575500 201 207 223
156.000000 -185.000000 89.375999 197 202 218
157.000000 -185.000000 89.375999 193 197 212
158.000000 -185.000000 89.176498 190 193 208
159.000000 -185.000000 89.176498 189 192 207
160.000000 -185.000000 89.375999 187 190 205
161.000000 -185.000000 89.575500 192 195 210
162.000000 -185.000000 89.774994 198 201 216
163.000000 -185.000000 90.173996 201 204 219
164.000000 -185.000000 90.373497 197 200 215
165.000000 -185.000000 90.572998 187 190 206
166.000000 -185.000000 91.570496 184 187 204
167.000000 -185.000000 92.168999 183 186 203
168.000000 -185.000000 92.168999 182 185 200
169.000000 -185.000000 92.568001 181 184 198
170.000000 -185.000000 92.568001 181 185 198
171.000000 -185.000000 92.168999 178 182 194
172.000000 -185.000000 91.769997 173 177 187
173.000000 -185.000000 91.769997 165 168 177
174.000000 -185.000000 91.769997 171 174 184
175.000000 -185.000000 91.969498 185 187 199
176.000000 -185.000000 91.969498 190 192 204
177.000000 -185.000000 92.568001 188 190 204
178.000000 -185.000000 92.568001 185 187 202
179.000000 -185.000000 92.767494 177 179 194
180.000000 -185.000000 92.568001 167 170 185
181.000000 -185.000000 92.368500 173 175 188
182.000000 -185.000000 90.572998 182 182 193
183.000000 -185.000000 89.375999 185 185 199
184.000000 -185.000000 88.577995 187 190 208
185.000000 -185.000000 88.378494 194 195 211
186.000000 -185.000000 88.378494 199 189 197
187.000000 -185.000000 88.378494 186 160 158
188.000000 -185.000000 88.179001 185 142 129
189.000000 -185.000000 87.580498 192 140 122
190.000000 -185.000000 51.670498 194 141 123
191.000000 -185.000000 51.869999 196 143 125
192.000000 -185.000000 52.268997 197 144 126
193.000000 -185.000000 52.468498 197 144 126
194.000000 -185.000000 52.667999 198 145 127
195.000000 -185.000000 52.867500 199 146 127
196.000000 -185.000000 52.867500 199 147 126
197.000000 -185.000000 53.066998 189 139 118
198.000000 -185.000000 53.665497 142 95 76
199.000000 -185.000000 53.864998 94 50 31
200.000000 -185.000000 53.864998 79 37 17
201.000000 -185.000000 54.064499 86 44 20
202.000000 -185.000000 54.064499 94 50 24
203.000000 -185.000000 54.064499 96 51 23
204.000000 -185.000000 54.264000 93 49 22
205.000000 -185.000000 54.264000 87 43 16
206.000000 -185.000000 54.264000 82 37 9
207.000000 -185.000000 54.264000 85 40 12
208.000000 -185.000000 54.264000 87 44 19
209.000000 -185.000000 54.264000 80 40 18
210.000000 -185.000000 54.264000 68 33 14
211.000000 -185.000000 54.264000 52 24 6
212.000000 -185.000000 54.264000 47 23 5
213.000000 -185.000000 54.264000 54 29 14
214.000000 -185.000000 54.064499 55 47 30
215.000000 -185.000000 54.064499 69 87 66
216.000000 -185.000000 53.864998 68 88 71
217.000000 -185.000000 53.665497 32 35 29
218.000000 -185.000000 51.670498 13 17 13
219.000000 -185.000000 50.673000 5 18 12
220.000000 -185.000000 50.473499 6 18 13
221.000000 -185.000000 50.273998 7 21 16
222.000000 -185.000000 50.273998 6 23 18
223.000000 -185.000000 50.473499 4 24 18
224.000000 -185.000000 50.473499 4 25 18
225.000000 -185.000000 50.473499 5 25 18
226.000000 -185.000000 50.473499 6 23 17
227.000000 -185.000000 50.473499 4 19 13
228.000000 -185.000000 50.273998 2 18 11
232.000000 -185.000000 0.000000 0 1 1
233.000000 -185.000000 0.199500 0 0 0
234.000000 -185.000000 0.199500 0 0 0
63.000000 -186.000000 78.802498 196 196 206
64.000000 -186.000000 79.001999 197 197 205
65.000000 -186.000000 78.802498 198 197 203
66.000000 -186.000000 78.602997 200 199 205
67.000000 -186.000000 78.802498 201 200 206
68.000000 -186.000000 78.802498 198 197 203
69.000000 -186.000000 79.201500 198 197 203
70.000000 -186.000000 79.401001 194 193 199
71.000000 -186.000000 79.799995 189 188 194
72.000000 -186.000000 80.398499 190 189 195
73.000000 -186.000000 81.595497 194 193 198
74.000000 -186.000000 81.994499 195 194 199
75.000000 -186.000000 82.792496 196 195 200
76.000000 -186.000000 82.991997 193 192 197
77.000000 -186.000000 82.991997 188 187 192
78.000000 -186.000000 82.991997 186 185 190
79.000000 -186.000000 82.991997 181 180 185
80.000000 -186.000000 82.592995 182 181 186
81.000000 -186.000000 81.395996 185 183 187
82.000000 -186.000000 81.395996 185 182 186
83.000000 -186.000000 82.194000 187 183 185
84.000000 -186.000000 82.592995 184 179 180
85.000000 -186.000000 82.991997 178 172 172
86.000000 -186.000000 83.191498 177 171 170
87.000000 -186.000000 83.590500 181 176 174
88.000000 -186.000000 83.590500 186 180 178
89.000000 -186.000000 83.590500 185 180 178
90.000000 -186.000000 83.590500 179 174 172
91.000000 -186.000000 83.390999 178 172 171
92.000000 -186.000000 82.991997 180 174 172
93.000000 -186.000000 82.194000 179 174 173
94.000000 -186.000000 81.595497 175 169 168
95.000000 -186.000000 80.797501 172 163 164
96.000000 -186.000000 80.797501 167 159 160
97.000000 -186.000000 81.196495 166 160 161
98.000000 -186.000000 81.196495 175 170 170
99.000000 -186.000000 81.794998 177 173 173
100.000000 -186.000000 81.994499 144 142 141
101.000000 -186.000000 82.991997 77 76 75
102.000000 -186.000000 83.790001 44 41 41
103.000000 -186.000000 85.784996 44 40 38
104.000000 -186.000000 87.779999 39 37 31
105.000000 -186.000000 90.572998 32 32 26
106.000000 -186.000000 91.769997 24 24 26
107.000000 -186.000000 92.568001 18 17 26
108.000000 -186.000000 92.966995 16 15 21
109.000000 -186.000000 93.565498 28 27 25
110.000000 -186.000000 94.562996 82 80 78
111.000000 -186.000000 95.161499 125 123 123
112.000000 -186.000000 95.560501 112 109 109
113.000000 -186.000000 96.358498 94 89 89
114.000000 -186.000000 97.754997 80 76 75
115.000000 -186.000000 98.552994 74 72 73
116.000000 -186.000000 99.550499 117 116 120
117.000000 -186.000000 100.348495 159 161 165
118.000000 -186.000000 101.146500 174 176 184
119.000000 -186.000000 102.143997 172 173 183
120.000000 -186.000000 103.540497 168 169 180
121.000000 -186.000000 104.737495 171 170 182
122.000000 -186.000000 105.535500 179 177 189
123.000000 -186.000000 108.528000 184 181 194
124.000000 -186.000000 93.764999 187 184 197
125.000000 -186.000000 93.764999 186 184 196
126.000000 -186.000000 93.764999 186 187 197
127.000000 -186.000000 93.365997 186 187 197
128.000000 -186.000000 93.166496 183 184 196
129.000000 -186.000000 93.166496 182 184 196
130.000000 -186.000000 93.166496 185 187 200
131.000000 -186.000000 93.166496 187 188 202
132.000000 -186.000000 93.565498 187 188 203
133.000000 -186.000000 93.764999 191 191 206
134.000000 -186.000000 93.764999 194 194 208
135.000000 -186.000000 93.365997 195 194 208
136.000000 -186.000000 92.966995 197 197 211
137.000000 -186.000000 92.568001 195 198 211
138.000000 -186.000000 92.368500 191 195 207
139.000000 -186.000000 91.769997 195 200 212
140.000000 -186.000000 91.171501 196 202 214
141.000000 -186.000000 90.373497 192 198 209
142.000000 -186.000000 90.373497 190 196 207
143.000000 -186.000000 90.972000 193 199 211
144.000000 -186.000000 91.769997 190 196 210
145.000000 -186.000000 92.368500 184 190 204
146.000000 -186.000000 92.368500 184 190 205
147.000000 -186.000000 92.368500 190 196 212
148.000000 -186.000000 91.969498 195 201 217
149.000000 -186.000000 92.168999 194 200 216
150.000000 -186.000000 91.969498 195 201 217
151.000000 -186.000000 91.769997 196 202 218
152.000000 -186.000000 91.171501 197 203 219
153.000000 -186.000000 90.572998 197 203 219
154.000000 -186.000000 89.974495 198 204 220
155.000000 -186.000000 89.974495 200 206 222
156.000000 -186.000000 89.575500 198 204 220
157.000000 -186.000000 89.575500 197 201 216
158.000000 -186.000000 89.575500 194 197 212
159.000000 -186.000000 89.575500 191 194 209
160.000000 -186.000000 89.575500 187 190 205
161.000000 -186.000000 89.774994 187 190 205
162.000000 -186.000000 89.974495 192 195 210
163.000000 -186.000000 89.974495 197 200 215
164.000000 -186.000000 90.173996 196 199 215
165.000000 -186.000000 90.572998 187 190 207
166.000000 -186.000000 90.972000 183 186 203
167.000000 -186.000000 91.570496 182 185 202
168.000000 -186.000000 92.168999 182 185 200
169.000000 -186.000000 92.168999 181 185 199
170.000000 -186.000000 91.769997 182 186 198
171.000000 -186.000000 91.769997 178 182 194
172.000000 -186.000000 91.370995 172 175 186
173.000000 -186.000000 91.570496 169 172 181
174.000000 -186.000000 91.769997 174 177 187
175.000000 -186.000000 91.969498 184 186 198
176.000000 -186.000000 92.168999 190 192 205
177.000000 -186.000000 92.568001 189 191 205
178.000000 -186.000000 92.767494 186 188 202
179.000000 -186.000000 92.966995 177 179 194
180.000000 -186.000000 92.767494 167 170 184
181.000000 -186.000000 92.568001 174 175 187
182.000000 -186.000000 90.772499 179 178 188
183.000000 -186.000000 89.974495 180 180 192
184.000000 -186.000000 89.375999 184 188 205
185.000000 -186.000000 89.176498 190 194 212
186.000000 -186.000000 88.976997 200 195 207
187.000000 -186.000000 88.577995 191 172 174
188.000000 -186.000000 88.577995 185 145 134
189.000000 -186.000000 88.577995 191 139 121
190.000000 -186.000000 52.268997 194 141 123
191.000000 -186.000000 52.268997 196 143 125
192.000000 -186.000000 52.468498 197 144 126
193.000000 -186.000000 52.867500 197 144 126
194.000000 -186.000000 52.867500 198 145 127
195.000000 -186.000000 53.066998 199 146 127
196.000000 -186.000000 53.066998 199 147 126
197.000000 -186.000000 53.266499 189 138 118
198.000000 -186.000000 53.864998 142 95 76
199.000000 -186.000000 53.864998 95 50 31
200.000000 -186.000000 54.064499 80 39 18
201.000000 -186.000000 54.064499 87 45 22
202.000000 -186.000000 54.064499 95 51 24
203.000000 -186.000000 54.064499 96 51 23
204.000000 -186.000000 54.264000 93 48 22
205.000000 -186.000000 54.264000 87 42 15
206.000000 -186.000000 54.264000 83 38 9
207.000000 -186.000000 54.264000 86 41 13
208.000000 -186.000000 54.264000 87 44 19
209.000000 -186.000000 54.264000 79 40 17
210.000000 -186.000000 54.264000 69 34 14
211.000000 -186.000000 54.264000 52 24 6
212.000000 -186.000000 54.264000 46 22 5
213.000000 -186.000000 54.264000 53 27 13
214.000000 -186.000000 54.064499 54 46 29
215.000000 -186.000000 54.064499 68 87 65
216.000000 -186.000000 53.864998 67 87 69
217.000000 -186.000000 53.665497 31 34 28
218.000000 -186.000000 51.869999 13 17 13
219.000000 -186.000000 51.071999 5 18 12
220.000000 -186.000000 50.673000 6 18 13
221.000000 -186.000000 50.473499 7 21 16
222.000000 -186.000000 50.473499 6 23 18
223.000000 -186.000000 50.473499 4 24 18
224.000000 -186.000000 50.673000 4 25 18
225.000000 -186.000000 50.673000 5 25 18
226.000000 -186.000000 50.673000 6 23 17
227.000000 -186.000000 50.673000 4 19 13
228.000000 -186.000000 50.473499 2 18 11
232.000000 -186.000000 0.000000 0 1 1
233.000000 -186.000000 0.000000 0 0 0
234.000000 -186.000000 0.000000 0 0 0
63.000000 -187.000000 78.602997 195 195 205
64.000000 -187.000000 78.602997 195 194 202
65.000000 -187.000000 78.203995 193 192 198
66.000000 -187.000000 78.004501 193 192 198
67.000000 -187.000000 78.602997 195 194 200
68.000000 -187.000000 78.802498 196 195 201
69.000000 -187.000000 79.001999 201 200 206
70.000000 -187.000000 79.401001 199 198 204
71.000000 -187.000000 79.799995 194 193 199
72.000000 -187.000000 80.398499 193 192 197
73.000000 -187.000000 81.794998 190 189 194
74.000000 -187.000000 81.994499 190 189 194
75.000000 -187.000000 82.194000 192 191 196
76.000000 -187.000000 82.792496 190 189 194
77.000000 -187.000000 82.991997 188 187 192
78.000000 -187.000000 82.991997 189 188 193
79.000000 -187.000000 82.991997 187 187 192
80.000000 -187.000000 82.991997 186 187 192
81.000000 -187.000000 82.592995 186 186 191
82.000000 -187.000000 81.794998 186 185 190
83.000000 -187.000000 82.194000 186 185 188
84.000000 -187.000000 82.991997 186 184 186
85.000000 -187.000000 82.991997 187 183 185
86.000000 -187.000000 83.191498 186 182 183
87.000000 -187.000000 83.390999 185 181 182
88.000000 -187.000000 83.590500 185 181 181
89.000000 -187.000000 83.590500 182 178 178
90.000000 -187.000000 83.390999 177 173 173
91.000000 -187.000000 83.390999 180 176 176
92.000000 -187.000000 82.991997 184 181 181
93.000000 -187.000000 82.592995 185 181 181
94.000000 -187.000000 82.194000 178 174 175
95.000000 -187.000000 81.595497 174 166 169
96.000000 -187.000000 81.395996 170 162 165
97.000000 -187.000000 81.395996 165 159 161
98.000000 -187.000000 81.395996 165 159 161
99.000000 -187.000000 81.794998 165 161 162
100.000000 -187.000000 82.991997 165 163 163
101.000000 -187.000000 83.191498 123 121 122
102.000000 -187.000000 84.188995 62 61 63
103.000000 -187.000000 86.183998 44 44 46
104.000000 -187.000000 87.779999 42 43 41
105.000000 -187.000000 90.572998 39 39 37
106.000000 -187.000000 92.168999 35 33 38
107.000000 -187.000000 92.767494 29 26 37
108.000000 -187.000000 93.365997 32 30 37
109.000000 -187.000000 94.562996 72 72 68
110.000000 -187.000000 95.161499 122 124 121
111.000000 -187.000000 95.560501 125 126 128
112.000000 -187.000000 96.557999 113 112 112
113.000000 -187.000000 97.156494 105 102 100
114.000000 -187.000000 97.754997 94 91 90
115.000000 -187.000000 98.353500 117 115 117
116.000000 -187.000000 99.151497 164 166 170
117.000000 -187.000000 100.348495 183 186 193
118.000000 -187.000000 101.146500 187 191 201
119.000000 -187.000000 101.944496 182 186 197
120.000000 -187.000000 101.944496 176 179 190
123.000000 -187.000000 92.568001 185 184 195
124.000000 -187.000000 93.166496 186 184 195
125.000000 -187.000000 93.565498 186 184 195
126.000000 -187.000000 93.565498 185 187 197
127.000000 -187.000000 93.365997 185 187 198
128.000000 -187.000000 93.166496 181 184 196
129.000000 -187.000000 93.166496 180 183 195
130.000000 -187.000000 93.166496 185 187 201
131.000000 -187.000000 93.166496 190 192 207
132.000000 -187.000000 93.365997 190 192 207
133.000000 -187.000000 93.365997 192 193 208
134.000000 -187.000000 93.365997 194 194 208
135.000000 -187.000000 93.166496 194 193 207
136.000000 -187.000000 92.767494 195 196 209
137.000000 -187.000000 92.568001 194 197 210
138.000000 -187.000000 92.368500 192 196 208
139.000000 -187.000000 92.168999 195 200 212
140.000000 -187.000000 91.769997 195 201 213
141.000000 -187.000000 91.370995 193 200 211
142.000000 -187.000000 91.769997 194 200 211
143.000000 -187.000000 91.769997 193 199 211
144.000000 -187.000000 92.368500 192 198 212
145.000000 -187.000000 92.568001 192 198 212
146.000000 -187.000000 92.568001 193 199 214
147.000000 -187.000000 92.568001 196 202 218
148.000000 -187.000000 92.568001 197 203 219
149.000000 -187.000000 92.368500 195 201 217
150.000000 -187.000000 92.168999 198 204 220
151.000000 -187.000000 91.969498 196 202 218
152.000000 -187.000000 91.370995 197 203 219
153.000000 -187.000000 90.572998 199 205 221
154.000000 -187.000000 90.373497 201 207 223
155.000000 -187.000000 89.974495 202 208 224
156.000000 -187.000000 89.774994 201 207 223
157.000000 -187.000000 89.774994 200 204 219
158.000000 -187.000000 89.774994 194 197 212
159.000000 -187.000000 89.774994 190 193 208
160.000000 -187.000000 89.774994 187 190 205
161.000000 -187.000000 89.974495 187 190 205
162.000000 -187.000000 89.974495 191 194 209
163.000000 -187.000000 89.974495 197 200 215
164.000000 -187.000000 90.173996 198 201 216
165.000000 -187.000000 90.173996 189 192 208
166.000000 -187.000000 90.572998 183 186 203
167.000000 -187.000000 90.972000 182 185 201
168.000000 -187.000000 90.972000 182 185 200
169.000000 -187.000000 90.173996 182 186 200
170.000000 -187.000000 90.173996 184 188 200
171.000000 -187.000000 90.772499 181 184 196
172.000000 -187.000000 91.171501 172 176 186
173.000000 -187.000000 91.171501 170 173 182
174.000000 -187.000000 91.969498 173 175 185
175.000000 -187.000000 92.168999 180 182 193
176.000000 -187.000000 92.368500 189 191 204
177.000000 -187.000000 92.767494 189 191 205
178.000000 -187.000000 92.966995 186 188 202
179.000000 -187.000000 93.166496 178 180 195
180.000000 -187.000000 92.966995 168 171 184
181.000000 -187.000000 92.767494 173 174 186
182.000000 -187.000000 90.772499 177 176 186
183.000000 -187.000000 90.772499 178 178 190
184.000000 -187.000000 89.974495 182 187 204
185.000000 -187.000000 89.774994 187 193 212
186.000000 -187.000000 89.375999 195 194 209
187.000000 -187.000000 89.375999 194 180 185
188.000000 -187.000000 89.375999 189 151 143
189.000000 -187.000000 89.375999 192 141 125
190.000000 -187.000000 88.577995 194 142 124
191.000000 -187.000000 52.468498 196 143 125
192.000000 -187.000000 52.867500 197 144 125
193.000000 -187.000000 53.066998 197 145 126
194.000000 -187.000000 53.066998 198 145 127
195.000000 -187.000000 53.266499 199 146 127
196.000000 -187.000000 53.266499 199 147 126
197.000000 -187.000000 53.466000 189 138 118
198.000000 -187.000000 53.864998 142 95 76
199.000000 -187.000000 54.064499 95 50 31
200.000000 -187.000000 54.064499 81 39 19
201.000000 -187.000000 54.064499 88 46 22
202.000000 -187.000000 54.064499 95 51 24
203.000000 -187.000000 54.064499 96 51 22
204.000000 -187.000000 54.264000 93 49 22
205.000000 -187.000000 54.264000 88 44 17
206.000000 -187.000000 54.264000 85 40 11
207.000000 -187.000000 54.264000 88 44 15
208.000000 -187.000000 54.264000 87 45 20
209.000000 -187.000000 54.264000 78 39 17
210.000000 -187.000000 54.264000 69 35 15
211.000000 -187.000000 54.264000 52 24 6
212.000000 -187.000000 54.264000 46 22 5
213.000000 -187.000000 54.264000 52 26 12
214.000000 -187.000000 54.064499 53 46 29
215.000000 -187.000000 54.064499 68 87 65
